# .PCD v0.7 - Point Cloud Data file format
VERSION 0.7
FIELDS x y z
SIZE 4 4 4
TYPE F F F
COUNT 1 1 1
WIDTH 1853
HEIGHT 1
VIEWPOINT 0 0 0 1 0 0 0
POINTS 1853
DATA ascii
45.07 47.127903 5.9447899
22.827147 20 6.5678468
0 27.338436 7.0709276
21.838043 49.630001 4.188931
46.78511 20 3.6002192
22.355095 3.9711297 8.0935383
45.07 40.295181 5.2841659
41.279293 40 0.89199108
41.543293 21.645405 -0
41.646618 29.147821 6.9800005
5.8400002 44.828754 3.8842771
23.556797 9.8299999 2.313796
6.490263 20 3.2824075
25.169998 21.119425 0.32834193
0 42.941475 0.26451522
44.593708 27.575891 6.98
48.209999 22.550327 6.6157818
45.07 44.908524 11.450676
0 40.681404 0.35769218
0 44.866386 5.1959133
44.603325 0.90185905 -0
20.129402 0 3.4612005
60.807671 7.3699999 7.2134328
2.7878859 25.785021 -0
23.716661 20.726152 13.2
21.374161 24.23 9.0069065
45.07 46.612957 8.0869904
60 0.68742234 14.524822
48.209999 29.037943 5.6760583
0 3.4042857 2.6489291
0 40.522938 0.20032854
60.719177 0 3.5350828
40 40.164017 13.257287
20 43.390736 0.49099272
9.2700005 23.838703 3.6048853
40 45.371574 0.0034790847
44.681725 40 1.3021835
43.629105 48.57 11.663178
43.082932 26.313847 -0
40 23.918625 4.2563925
2.3931365 20 6.9625301
68.669998 0.75100464 15.6471
41.650875 45.826782 -0
60 6.0799804 13.525152
60.306473 5.6088262 -0
20 23.027639 10.427341
21.68581 0 0.46060205
42.25835 43.372124 16.1
5.5235844 40 4.9137611
48.209999 21.458513 6.5464354
0.32997641 4.4302382 -0
9.2112703 20 1.1300087
20 40.016064 6.0568728
4.7742553 0.17064717 6.9010868
44.371906 20.535339 -0
8.4151802 27.295879 7.031743
60 4.029881 16.661823
44.267776 48.57 15.179182
60.369297 7.3699999 11.471515
8.9906807 27.237587 6.8622599
20.209293 49.60923 6.3304162
0 22.134327 7.6807857
7.8923922 28.610001 1.0052258
0 20.896317 9.370717
45.084942 3.6800003 6.7268744
24.5221 20 0.51876658
9.2700005 22.690289 5.7090616
6.0750747 27.537127 7.7209005
5.0055017 24.035412 8.0358877
44.42437 3.6800003 7.808126
64.110519 0 0.73748606
40.430851 22.444408 -0
46.717056 29.57 5.5154276
20 3.3169532 1.5066309
60 0.19237222 0.92842621
40.530346 40 6.2169414
4.6041403 1.9948854 8.1955128
9.2700005 22.296515 4.0000062
0 0.73446047 1.4274133
66.839592 0 10.759708
41.582664 29.57 3.9627173
23.648355 24.23 7.8993654
67.222717 7.3699999 14.543368
0.2189523 0.087800279 6.8423004
22.88092 43.6087 8.3760929
60 1.0353823 6.0118651
40 42.978504 6.1603527
43.228886 2.3692677 -0
43.44239 48.57 15.015385
40 1.5489548 12.135517
68.174248 7.3699999 2.5959716
9.2700005 27.588064 0.46017855
43.461945 42.006939 -0
25.17 22.229717 7.6593442
65.849823 7.3699999 1.6485721
65.518791 7.3699999 1.6373801
45.07 47.194092 7.1377101
24.049999 47.902153 3.2210567
68.669998 6.1577139 1.473841
9.2700005 27.989866 6.3535171
40.917549 48.57 1.8301241
42.386818 20 6.7938991
23.669245 24.23 6.7337484
41.722271 29.569998 0.94275701
40.902798 29.57 5.7698808
42.580574 29.57 4.3752704
40.889591 0 0.41247061
25.17 22.286854 2.8356016
0 42.802048 4.6543307
48.144188 25.183643 6.98
43.948158 40 11.587049
20.478542 22.494141 -0
45.07 48.341385 0.75102496
23.996828 39.999996 2.2714496
4.5648084 28.610001 8.046382
48.209999 21.556561 0.38761446
20.424002 24.23 3.5105422
6.5162315 28.610001 5.1959953
44.131084 20 6.5669107
24.63006 20 0.81738865
21.315027 9.8299999 6.7323451
45.538521 21.664757 -0
4.5913749 6.1100006 3.4513791
22.985065 8.9152927 -0
60 6.1319265 0.84332341
40 2.761255 9.9264011
60 2.9723229 12.391837
20 48.362259 5.4100194
23.58169 24.23 8.6776323
45.883293 24.936703 -0
3.6801367 24.105717 8.4262056
7.7999711 28.610003 6.6881976
0 23.985744 0.27474061
0.91942459 6.1100001 1.8400676
65.02858 0 3.5474842
7.3456693 25.127792 7.3467131
0 25.307972 5.6822081
0 21.32966 6.056725
60 5.9319472 16.476065
68.669998 2.3667154 2.0534806
2.941402 47.130001 7.1545115
65.993057 7.3699999 9.6346302
41.146675 40 3.1050818
43.356354 0 4.2154918
5.869225 5.8270321 6.9807858
20.283457 41.360703 6.7579241
61.601387 0 16.556337
0.96863949 47.130001 0.28550693
67.412079 7.3699999 1.9802105
45.07 42.112251 10.600936
1.2977054 25.575115 -0
20.817997 4.4891458 9.5727892
0 4.4509835 0.19902922
0.63209289 6.1100001 4.0394416
20.000002 0.95692354 0.39179707
4.9626083 28.610001 7.0342274
5.1353321 45.712433 7.0885015
20.93688 40.063683 6.5172186
64.677887 0 4.2761807
62.744915 0 16.032967
40.324978 0 13.852779
40.783592 0 9.6109133
19.999998 47.407001 5.6953268
20 0.72627807 2.0717211
3.7221591 23.884861 -0
5.824717 42.5317 6.5714626
45.07 41.776562 11.5953
23.720001 4.9706459 4.7873902
24.049999 43.697609 5.0272126
22.604145 44.576889 -0
45.42849 0 8.5043726
3.1950812 40.888039 8.5436888
40 1.9182953 6.1502018
22.342602 9.6324148 -0
23.370852 40 1.1719998
43.297741 48.080906 16.1
47.014397 24.617836 6.98
20 4.7716537 2.2009325
45.07 46.98225 7.2364745
41.065529 40 2.9728432
4.9568739 28.610001 5.5651541
68.208618 1.7237322 -0
40 45.107025 11.368526
22.219862 40 2.2375031
60 7.1023006 13.454893
23.204597 43.78894 7.784688
22.939514 20.5748 13.199999
40.284111 47.490952 16.1
0 26.50753 0.40818465
1.3628781 44.635521 -0
1.83102 40 0.45040074
60 3.6022165 5.7065516
0 43.650719 0.39375475
20 3.5634391 8.0142927
40.706856 3.6800003 3.0700626
60 2.9281833 16.447601
40 1.1242076 8.4108953
40 1.7582824 10.070648
0.4371368 0 0.6539793
40 40.179661 11.090553
20 49.108253 0.11348639
45.07 44.960285 2.6728966
20 1.8213876 6.0992265
5.5853391 25.307554 7.8651266
1.8780473 41.962196 -0
63.594803 6.2517595 -0
25.170002 21.278101 2.6277859
20 42.476311 5.6918201
40 44.24184 11.82561
60 5.4034367 3.0048814
45.07 45.136383 10.687849
43.154877 40.518814 16.1
20.716108 9.8299999 0.23372433
23.081165 8.6543732 -0
40 40.381142 4.4699564
20.418245 46.013176 7.0042028
41.261955 48.57 6.5717192
45.07 40.184357 6.1114945
45.07 45.486988 6.0699444
7.1961441 27.57118 -0
4.2088451 40.164276 7.7833662
23.508263 9.8299999 5.1299348
61.887039 0 6.6599221
64.114777 1.991642 17.049999
24.450718 20 3.0470986
24.049999 44.07653 0.2990925
61.323608 3.9565394 17.049999
60.772545 7.3699994 3.8195584
21.964968 41.420357 9.8303108
40 26.230911 3.5901208
44.587376 21.173882 -0
2.0034089 45.022423 8.0625572
43.61338 24.736774 6.98
45.316616 3.6800001 7.8149567
68.669998 1.7639768 8.0678616
68.669998 3.5527678 7.6764112
65.903 7.3699999 16.100283
3.8125103 5.3663821 -0
21.440102 23.157875 13.2
6.7990766 21.540165 7.5076833
46.110001 2.4089704 8.1855783
0 20.848982 7.9735451
5.460897 27.2745 7.9017754
60 3.4112926 1.0028678
22.796358 40.434673 8.1320963
68.669998 3.4082584 5.3645239
45.683994 0 1.2277828
41.818535 3.6800003 2.6858506
40 24.672821 0.25601679
42.196266 29.57 5.5874519
22.377747 24.23 3.6345594
20 40.143559 3.9289279
20.119701 41.035427 6.4587116
41.13776 41.64399 16.099998
68.669998 5.9458656 10.312346
40 0.41453987 11.235022
1.115822 28.610001 4.368609
24.049999 46.524128 2.1265392
68.669998 3.9511447 9.9325609
24.999254 24.23 10.732437
9.2700005 25.767345 2.4468031
65.963547 7.3699999 8.5532742
45.07 48.195408 12.450496
67.341385 7.3699999 8.7768402
2.696373 28.610001 6.2797117
21.841877 40 2.7224286
23.719999 1.6137977 5.5840673
43.391041 22.355949 -0
6.8092279 27.494553 7.504694
46.110001 2.3236797 4.9796667
20.360601 9.8299999 5.4566951
65.427406 7.3699999 5.8250208
63.706921 0 16.830776
24.023951 20 12.344997
40 20.773275 6.5670581
44.332397 3.6800001 14.796455
20.247091 3.9023154 -0
45.07 42.093082 6.0719242
23.30904 3.0095284 7.1754932
40 1.5465633 7.4354177
20 20.135239 6.4953923
22.575584 40.26049 7.3738966
41.711884 26.158657 6.98
5.8400002 44.156281 0.60741645
0.47813413 5.6441679 7.0386138
67.772964 1.0369835 17.049999
45.07 44.279922 8.8190451
45.23148 3.6799998 12.355179
23.089193 49.630001 4.0552034
64.567467 0.66318071 -0
7.3731756 26.643787 7.3386116
40 47.051422 10.409889
2.9142168 46.695892 -0
48.209999 21.167408 5.2744327
45.983173 1.8686042 -0
4.7950716 40 4.1184683
20.384357 20 2.6220431
1.4830066 40 6.4346991
41.373981 3.6800001 12.695803
20.934484 4.1404538 -0
9.2700005 25.851257 0.45200765
40.48436 45.201717 16.099998
23.719999 6.6849875 1.2086544
20.512726 21.097824 13.2
0.10137515 2.9287279 6.8348322
21.338646 24.23 10.524581
20.227535 6.7293572 10.141027
8.7071609 28.27265 -0
6.3823605 22.842216 -0
67.859352 0 7.7216997
62.149719 0 16.808245
44.756416 0 0.52291656
3.7455163 42.084068 -0
44.240585 40 14.345329
40 42.344425 12.713497
68.669998 6.1767459 16.049381
40 47.235359 5.5183883
64.7948 0 8.397397
46.9879 21.65206 6.98
22.773642 24.23 5.3555446
45.170784 3.6800001 15.754081
2.0310154 0 5.8026848
40 42.998047 6.8504486
6.4265494 24.583769 -0
41.224281 40 15.963282
41.815514 48.15799 -0
23.533142 49.310299 7.1843791
7.9499998 1.2167671 4.296237
20 23.986355 5.4604201
41.451923 48.57 1.6054097
23.78759 45.351562 6.7194624
7.7784486 24.315054 -0
45.32597 0 1.4100755
20 2.7717881 0.58869851
7.5448704 24.648373 -0
21.32782 47.776333 -0
44.899673 29.476719 -0
44.194588 0 2.881336
40 0.39842039 10.926694
4.0491056 25.468918 8.3175449
21.241222 48.483303 8.5079136
22.922241 24.23 5.3965697
21.359039 5.0448017 9.0521059
20.543102 44.204533 7.2323332
3.5089297 41.014805 8.3083019
23.719999 9.2193842 0.29084361
20 43.775791 0.68244618
48.209999 28.083969 3.7236919
6.0984297 1.8845569 -0
1.7302381 1.5401481 7.7158527
41.278629 29.57 3.4509318
21.125519 6.644536 9.2768383
4.684453 28.608334 8.1304369
22.735731 40.205509 7.1345749
46.110001 1.2923517 8.8294973
7.9499998 2.713227 3.5714719
60 6.2040296 6.1543894
60.191734 6.1101112 -0
60 4.07763 9.2375965
0 0.8346225 5.5924783
40.517548 3.6800003 4.7320433
21.198973 45.102818 8.4307165
20 23.976765 2.3129032
40 43.259842 7.3176193
20 22.511108 5.4770308
25.170002 23.101009 10.887648
40.59671 0 10.974332
20.698576 24.23 11.670524
25.169998 20.941456 12.228813
3.0457354 1.3799247 7.7591543
0.93280077 25.77306 -0
7.9499998 4.5830007 2.9069297
42.618698 48.57 6.7949619
7.7629275 25.621572 -0
1.7656457 6.0878553 -0
21.142075 9.4152536 -0
45.07 40.200314 15.834374
44.564487 0 3.5809214
6.1710482 28.610001 3.8236032
63.19268 4.3144178 -0
61.77475 2.7326014 17.049999
48.209999 28.021875 6.4911323
43.840942 26.959696 -0
40 48.043533 9.0724277
22.080328 21.324429 -0
45.566128 3.6800003 15.503526
45.471775 26.22337 6.9800005
68.669998 2.3793116 2.545974
20.481018 20 12.415224
40 48.189285 2.4071453
40 23.085117 1.8601557
68.662598 0 3.1481712
48.209999 21.96628 1.9851985
42.238754 41.164589 16.1
44.335552 3.6799998 11.249524
20 4.663487 6.7970519
40 46.138218 1.1428444
21.117596 41.774059 8.2820292
45.07 41.964005 7.2039065
45.07 46.757256 2.8834436
6.5817862 23.46863 7.5716753
3.1446154 28.610001 2.2054143
41.958179 48.57 15.20001
41.59108 0 15.070107
22.937431 6.0488768 -0
9.2700005 22.536177 6.4529686
4.7940207 28.610001 3.4757771
20 8.1719799 6.0880494
20 40.866119 4.1217699
64.903137 6.3765917 17.049999
45.07 41.678329 6.2465191
6.976212 5.4142694 7.2736702
0.56899601 1.5800523 -0
22.556351 20 5.9223294
1.693504 6.1100001 1.1846967
47.59956 29.57 3.0473001
8.7332573 20.686111 6.9380703
60 1.4957449 3.8650877
2.5448844 20 0.97749889
48.209999 27.21509 4.9843607
45.550278 22.81509 -0
40 45.49369 11.17009
5.8400002 47.060974 5.0598459
62.236496 7.3699999 15.392646
20 1.7864501 2.2703695
3.8298759 47.130001 4.4221559
24.442665 20 4.0375566
0 20.288143 8.1868086
42.606285 3.5355611 -0
20 47.793175 1.5760403
65.053574 0 15.371911
68.198189 3.482373 -0
40 41.756294 2.3544044
20.150034 9.8299999 6.4583573
23.716661 46.671032 6.849061
41.834679 40 7.2436585
23.185509 24.23 7.7429562
40 44.887558 0.94021326
2.3750529 43.785408 8.3412895
60 1.0610238 1.3699255
41.975605 0 11.155468
5.0775814 0 2.5309007
42.152832 29.57 5.8003526
23.562641 7.9181237 6.9314356
45.790653 29.479973 -0
6.6320138 28.610001 2.7223599
2.6490803 40.671299 8.5468102
20 4.1803164 4.5826631
20 9.6061945 6.274735
68.669998 3.4699154 14.273982
42.199001 41.40451 16.1
45.882732 0 16.337191
2.1841722 43.940865 8.1981297
40.563736 41.7425 -0
40 43.700008 2.8983812
22.691868 40.021332 -0
5.1407123 0 0.12650557
40.166271 3.6800001 11.558973
20 49.556133 5.3687825
43.946178 42.688351 -0
43.622452 44.539429 16.1
20 3.5483205 2.1607726
40.81266 0 5.2268887
45.07 46.64127 13.782815
22.048624 42.475067 9.8968315
0.1488006 2.9238281 6.8604832
23.464031 20 6.6289234
24.596506 20 8.2618933
42.788506 29.57 4.938993
20 22.66728 8.0567303
43.381844 1.8218575 -0
22.182941 21.064617 13.200001
5.0009127 40 0.53807533
4.7176905 28.610001 4.2204547
60 5.5407572 12.68387
40 41.696999 11.534472
60 5.4697595 11.248079
9.2700005 23.518887 3.012466
22.050896 9.8299999 1.9443946
20 1.6000177 8.3879299
5.8400002 45.58139 1.5314047
7.0771422 28.610001 6.2672935
66.561394 2.0273862 -0
2.8917518 5.8904152 6.935812
40 43.66581 7.4486761
7.9499998 1.6319242 3.7496076
25.17 20.6943 0.24529088
67.257851 0 11.175975
21.016661 5.3720241 -0
8.0240755 20 3.3048816
45.028667 22.256844 -0
46.110001 3.3257153 13.368375
1.995329 45.996353 8.0564966
22.219177 44.228512 9.5852089
0.98505032 20.885101 9.2199049
40 0.66420895 6.5437183
40.933853 3.0119705 16.6
40 42.352116 4.2521176
60 0.48822665 15.783123
68.295715 7.3699999 13.778402
24.049999 43.985325 5.3783069
67.974335 0 13.821158
43.072895 20.298647 6.98
23.224812 7.4045482 -0
45.07 40.92733 10.811663
41.419727 40.879456 -0
43.550129 3.6800003 1.084875
42.370628 40.819176 16.1
8.5745239 28.610001 1.6944733
67.380608 4.3726597 17.049999
67.378433 2.0366993 17.049999
60 7.2834377 8.3868704
4.2850227 28.610001 4.324831
43.045799 1.6865251 16.6
20 6.9347286 6.4044671
0 23.961647 8.4535837
46.789749 28.577663 6.98
40 45.504791 11.788013
40 44.422729 7.7184458
68.669998 4.6272769 11.997947
25.05566 20 11.770128
60.926918 0 7.9267178
1.8076067 0 3.0457611
20 2.0907297 7.9245696
1.7673906 3.8817115 -0
68.669998 2.6156771 4.7137432
0 25.767254 3.8986101
0.34134477 44.684029 -0
40.757133 40 8.6846743
20 21.797413 2.670861
20.915268 40.660175 7.9123387
43.629005 21.413605 6.98
42.364735 21.701683 6.98
64.818695 0 7.6358628
21.059986 20 9.2190466
42.197323 48.57 9.7495966
2.9159522 6.1099997 6.5703573
65.29274 3.1885619 17.049999
20 21.358482 11.20812
2.2665775 26.072544 -0
9.2700005 27.490562 5.0896335
68.669998 6.7285948 5.6233964
65.632614 0 5.4624171
0 27.167667 4.1218648
40.740749 22.906601 6.98
68.031013 0 4.9563527
9.114336 26.211853 -0
1.9817295 46.827545 8.0462971
45.07 44.851376 11.158047
45.07 44.911434 2.1794562
6.3063631 6.1100006 2.3892512
7.9499998 4.3141832 2.2992468
20 46.982483 6.1348658
46.110001 0.71936733 8.3568449
0 27.523052 6.6802387
43.537529 24.048269 -0
24.962709 23.18609 -0
2.235481 3.9979217 -0
23.151819 1.6167659 -0
3.2466471 45.580551 -0
62.634102 0 7.6031904
60 6.2817039 4.7640038
7.703898 22.538368 -0
25.170002 23.585518 4.8043237
41.387089 22.594133 6.9800005
42.212589 0 7.1223831
4.6663289 0 4.4565787
9.2700005 24.210348 3.3698006
8.3063927 22.479076 7.0637813
43.723206 43.784889 -0
66.832191 3.8962891 17.049999
60.190132 0 8.5409479
46.110001 1.931461 1.2465602
20 24.042135 9.8654041
7.8209968 20 0.62484527
9.2700005 21.181068 0.52189004
45.07 42.828545 7.9039016
45.394661 25.900681 -0
9.2700005 28.515568 5.1345329
20 22.771587 8.914463
63.366749 0 5.8089495
0 26.237875 3.9926727
45.07 45.517315 15.98722
60 5.8032174 8.9166307
7.9499998 3.11219 3.1352623
66.477074 7.3699999 15.218304
68.669998 1.4779761 5.3944478
22.832844 24.23 3.948173
20.171238 1.2776192 10.195206
5.8400002 44.940437 4.389894
41.136475 40 13.591628
6.4576869 27.770458 -0
42.37286 0 16.219139
23.557121 7.2260437 6.9367495
0 1.3021387 3.5508277
4.0251937 20 3.484607
45.07 44.672161 10.508928
0 20.799473 6.2057171
62.937439 7.3699999 7.5062451
45.07 44.379284 6.2570782
60 5.2519789 5.4768353
62.83886 7.3699999 6.246491
2.2646914 41.266308 -0
44.799629 39.999996 15.433394
60 4.3829741 5.4534712
40.801105 48.57 4.0793905
40 21.915504 6.5091577
1.3013852 45.30827 7.5360394
45.07 41.374367 11.109982
21.322128 9.8299999 3.9142475
48.204697 29.57 4.9052715
68.669998 4.3343463 16.246075
0 40.508087 6.0740681
0 0.028058587 6.6908159
21.906948 45.123772 9.7243023
20 2.4394889 1.4462615
44.593639 40 15.132693
0 5.7573991 5.8345432
5.8400006 47.002083 0.86782575
20 8.8258944 2.974112
21.705513 0 8.040925
21.773293 3.1826737 -0
42.009518 0 4.6119041
0 25.333267 5.5393643
40 23.84026 5.9361248
45.07 41.508121 11.458927
9.2700005 24.892506 0.62467986
42.33374 3.6800001 9.738904
0 1.0626904 0.31808978
46.110001 1.6544932 6.3966999
23.52216 49.630001 3.2713952
60 3.9487474 10.290347
43.471283 0.62608242 16.6
9.2700005 20.703629 5.2903147
3.1432934 40 7.3569908
45.07 44.40696 7.2993135
60.854195 7.3699999 5.8694844
7.5280776 28.610001 5.1686201
45.07 46.177864 9.0941935
20 9.1725731 0.12183326
23.719999 7.9164991 6.5035191
43.741615 40 3.5140512
20 42.317719 5.412827
62.020828 7.3699999 3.120465
61.844658 3.1385248 17.049999
1.184431 45.435814 7.4483232
3.0622354 21.199469 8.6081772
40.588959 20 6.5495529
48.209999 28.319305 5.4949565
5.9997764 21.399359 7.7430763
60 2.5922358 2.76896
20 21.258751 12.04081
68.529602 0 1.7105269
68.669998 5.2916975 4.2970233
43.622253 3.6800003 6.9773421
61.946213 0 4.8534656
2.7974598 20 8.5999012
45.621964 25.097553 6.9800005
20.361961 40.578384 -0
42.769913 3.5352211 16.6
64.100006 7.3699999 12.535994
20 20.402721 1.046548
45.07 43.351185 1.2251494
24.049999 47.11964 2.1291618
23.224834 9.8299999 3.1062357
45.518284 23.283756 -0
5.2780151 27.824284 7.9556327
20 46.204517 3.2128277
60 2.4696651 3.4863596
40 23.423546 4.0841103
42.514038 3.6800003 13.529315
68.669998 5.3984318 15.311501
40 0.11349595 4.6197066
4.8549047 28.610001 5.8600678
43.454803 40 9.1424551
4.9314661 23.51433 8.0576916
21.768225 20.473713 13.2
5.2040238 42.366222 -0
47.102123 28.725523 -0
20.521992 45.59972 7.1937604
2.0110738 22.330019 8.9177427
4.7960138 0.73662579 -0
23.081114 42.663254 8.0103092
65.265251 0 10.306751
20.619013 24.23 3.2313755
60 5.8232536 7.8153467
61.422455 7.3699999 6.9704771
41.765396 45.105392 16.1
3.172004 24.853655 -0
66.408134 5.3166256 17.049999
3.5555255 20 7.4897609
25.17 22.987995 3.2780323
42.603336 0 3.0928965
65.503204 3.647531 17.049999
62.370728 7.3699999 2.7151291
42.538479 41.751343 16.1
23.783386 24.23 7.64818
48.209999 21.642288 6.5936394
42.821457 26.421364 -0
43.96159 0 13.162791
68.669998 3.8360755 15.517533
62.257454 6.0224752 17.049999
21.38372 8.3116655 -0
5.7949862 28.413038 -0
7.431284 0 1.2717627
5.8400002 45.658958 2.1685472
47.022808 20 2.7634292
40 23.523394 2.1713052
45.07 48.29768 14.166746
60.158337 7.3699999 12.247538
44.492569 3.6800001 10.436007
40.170685 40 8.169363
44.174694 46.976608 -0
6.3062482 5.1736388 7.4444146
40 48.557121 7.8270741
5.6912189 42.541313 6.671586
40.349648 20 6.1898508
60 4.0278726 16.732332
60 0.96497476 14.136518
20 44.71553 0.46479437
3.1075418 22.599838 8.5948343
23.382423 9.8299999 5.793941
68.669998 3.0352647 14.300656
48.209999 25.392742 3.0774019
42.131824 0 0.33708343
44.416389 20 1.9943576
40.942631 0 13.877903
20.859793 0.34521973 9.5325642
62.742767 7.3699999 2.027087
62.937126 5.2561741 -0
20.098824 40 4.5429649
60 0.92079091 10.314287
68.669998 3.0999184 14.942962
62.494774 1.251564 -0
3.0089226 45.047989 8.6833086
45.07 45.994972 8.8892679
20.082561 47.061882 -0
25.042704 24.23 6.2892723
0 42.029556 5.0591264
67.100227 1.3298169 17.049999
0 42.630775 1.9197099
3.1801603 47.130001 6.580853
40 1.7380884 15.056501
45.07 42.937557 5.1957941
7.9499998 5.3108616 5.5020223
40 47.598152 0.24509341
2.8517613 43.250008 8.6988211
44.236145 29.57 5.1526585
43.607918 26.369196 -0
40 2.6430557 2.1507168
60.413601 4.9274492 -0
45.07 44.661263 9.0936117
40.112762 40 8.6186991
22.819 43.982376 8.4892311
65.859879 0.52879518 17.049999
41.607193 3.6800001 11.929762
44.414513 40 4.5007992
68.544838 0 16.367832
45.07 40.13586 13.229963
48.209999 20.803583 0.1250709
1.497372 4.2225056 7.5899
46.110001 2.7502468 16.279493
67.360733 0 6.0403404
6.302187 28.181973 -0
60 4.8468323 6.4932027
40 20.105112 5.7193608
24.049999 42.297924 6.0040092
24.049999 45.670261 5.1714001
60.196342 0 7.3168769
45.07 43.985771 1.0821965
64.845261 7.3699999 6.1665101
9.2700005 21.44235 4.0901251
40 26.974564 2.4275522
68.669998 6.7272072 14.113414
64.873566 0 2.0458283
44.414391 45.776196 -0
42.807777 48.57 1.0422833
44.66568 2.9600558 -0
66.325577 7.3699999 4.2447491
62.469223 7.3699999 11.50551
60.007393 0 14.572024
46.110001 2.1744251 3.0086756
5.8400002 42.019096 0.92183411
47.820267 23.465656 6.9800005
9.2700005 22.017059 0.046706516
40 21.331869 2.5387845
23.471727 24.23 6.0791349
60.341209 0 7.4312549
23.105278 49.395325 7.2615395
25.17 23.685293 2.7969809
5.2174082 2.9707754 -0
40 46.538395 4.1381173
1.366377 28.609999 0.8490352
0.97763014 27.239677 -0
0 22.341171 7.8159561
22.837837 43.339821 -0
23.719997 1.2800955 1.8600506
1.948858 27.793329 8.9360647
45.650658 3.6800001 2.2199385
68.669998 1.1817597 5.3197913
2.9557211 28.610001 8.0608444
41.428967 0 10.844128
2.5329676 42.036747 8.4597254
21.072643 47.776348 8.199893
60 0.44806579 8.4453421
63.776657 0 5.7222962
20 41.458515 2.710552
45.07 46.732662 6.650188
20 41.71199 1.9691294
22.82362 40 0.37517473
23.00264 2.5192914 -0
60.489372 0 8.0566492
40.091766 0 12.320422
6.7069254 20.927847 7.5348215
40 27.707439 4.1324167
41.884048 21.992531 -0
42.617626 0 2.6851366
68.055962 1.9858621 17.049999
40 3.0343482 5.3544655
22.609985 42.336662 8.8711357
5.8400002 40.33762 0.64010924
67.195587 0 12.886726
45.227501 3.6799998 8.2318192
64.267517 0.20646805 17.049999
2.1559241 20 8.8234901
60.764019 0 6.4982171
0 26.212879 2.0040529
20 1.4000635 3.3701513
20.86092 48.679993 -0
43.928467 48.57 7.4481115
21.667557 3.7329895 8.7552004
62.06097 0 3.919235
44.351963 40 0.89369351
41.540058 27.630812 -0
44.555656 29.57 3.3219349
43.442146 42.023285 16.1
0 27.84177 4.4682384
0.60807645 44.159363 7.0160575
41.145294 0.70973933 16.6
0 27.18289 7.8360415
3.4339292 28.610001 5.490344
60 6.0405827 10.157105
0.1680643 0 0.27483764
20.044983 9.8299999 10.214274
44.622242 48.57 9.3107014
60 7.0983372 3.8326044
48.209999 26.66465 2.8258653
4.3327069 42.467197 -0
60 6.4897099 4.4173036
44.551636 48.570004 1.1354423
9.2700005 21.449253 5.8283396
20.500265 20 7.9741511
62.657913 0 3.7483895
25.169998 21.550621 6.4256191
63.869301 7.3699999 0.076213822
40 24.585602 0.8399021
67.986084 7.3699994 16.62499
60.791702 4.4974966 -0
7.9499998 4.0319095 3.908231
48.1604 24.395395 -0
64.596657 7.3699999 14.445742
2.4411883 1.6268405 7.9343586
20 21.964211 1.622435
43.148407 27.194859 -0
0 45.678276 2.9958553
0 5.7751532 4.6888785
0 45.865215 1.0040174
6.6760254 27.255634 7.5439219
68.669998 1.1313139 8.0037403
43.329109 0 2.980993
65.113052 7.3700004 5.859664
0 40.092449 0.011151818
60.4478 7.3699999 11.156239
0 20.168091 1.5745008
7.2380667 4.1206112 7.1650705
6.9700389 0 3.7341697
40.013081 3.6800001 1.8589215
9.2700005 23.994144 1.8838843
42.787247 20 6.3820424
5.8400002 40.260895 5.5464172
5.3813109 47.130001 5.6223807
42.74548 48.57 12.151854
0.76385182 21.792601 9.2850466
0.11322147 6.1100001 4.6031966
45.07 43.460548 13.299011
40 44.037395 14.644118
7.9499998 3.4535983 1.1142533
0.28076264 47.130001 5.1566234
42.505611 40 3.1804647
39.999996 46.427898 14.735893
42.43343 3.6799998 4.630816
40 42.264915 2.9785619
23.719997 7.5846319 6.6270456
48.209999 26.667768 3.7486262
44.294395 24.41312 -0
40 3.2350817 6.6900263
21.579443 40 5.3161411
3.768847 40 4.4669561
41.692982 21.060596 -0
42.177689 0 4.2926869
48.159164 24.772385 -0
9.2700005 26.196484 6.4392967
46.110001 2.3917706 6.0303178
67.484734 2.4078588 -0
62.200771 7.3699999 5.6170187
40 2.8934321 14.854601
40.387005 3.6800001 4.9829035
3.9728916 46.267303 -0
20.766495 8.7202158 -0
68.669998 4.4602957 8.5087948
3.3281212 45.991039 8.4439096
23.502754 20 8.7223225
20 21.583807 3.0973372
2.4549093 25.805788 8.7870331
66.148262 0 7.2545028
2.7220042 20 3.3097973
40 41.455833 10.986171
45.737095 0 13.67212
22.889099 44.567665 -0
20 2.4559603 6.8884068
62.905403 7.3699999 0.19956097
60.217186 0 15.080692
5.3084412 42.711483 -0
25.17 21.320522 6.3269539
45.07 40.602558 9.6647243
20.68984 48.234711 7.5004501
3.0078998 3.9641578 -0
62.05381 7.3699999 5.2531314
44.480206 47.513382 16.099998
2.914932 20 2.3499477
68.669998 0.74304509 10.608032
40 41.802601 3.321502
65.996445 7.3699999 1.0604149
42.934296 48.57 2.2572627
62.172379 0 16.499794
40 47.946659 16.083578
20 48.609531 2.1263337
9.2700005 20.877981 0.62079626
40.982933 24.362967 -0
21.310295 40.055786 6.4828329
24.049999 41.01897 5.6753607
40 42.604103 8.8131151
60 0.49657354 7.4119639
0 21.730835 6.8784337
40 42.921394 15.944405
20 48.355061 4.3860898
20 4.0136228 6.4542732
20 46.011894 1.099418
40 0.58159572 5.0279622
3.898705 40 2.1339374
40 20.191164 1.7313391
64.17421 0.83749008 -0
6.1263785 20 7.6723695
5.1005349 20.863863 8.0079012
63.237568 5.6280546 -0
60.751099 7.3699999 1.3100951
68.669998 3.6003835 4.3040142
7.0928874 0 5.9491343
1.0476352 26.287102 -0
20 0.97571087 1.0495652
20 3.051209 9.3982067
40 47.871307 12.584233
64.133171 7.3699999 0.88821989
3.3756788 40 8.3056393
9.0315599 20 2.571156
42.28191 3.6799998 4.0438795
68.669998 1.0949539 3.4431968
60.148232 0 4.3642936
5.0176263 41.990982 -0
2.9916778 40 4.7409616
61.243103 7.3699999 13.774354
44.592537 45.74398 16.1
42.809044 2.9553564 -0
47.070656 26.008966 6.9799995
42.454956 24.439962 6.98
2.9252312 47.130001 8.3356991
68.669998 2.7277935 15.160749
40 2.9233222 4.6106138
63.314697 7.3699999 4.1182799
23.447285 0 3.9019301
0.32240564 0 1.4888409
25.17 20.652653 11.526689
4.7769232 40 4.8382835
60 0.52303219 2.1969001
7.7127209 4.6792393 6.9083395
21.738758 1.9536656 -0
40 44.034142 0.95918238
68.45443 0.61307019 17.049999
43.091915 21.797804 6.98
40 28.406788 0.25838032
42.265713 3.6800003 3.5076439
24.049999 46.460567 4.1370249
25.17 22.15617 4.5653048
47.716095 20 2.3733759
41.553429 3.6800001 14.885741
48.209999 24.957325 1.0210272
62.193268 0 10.470696
7.0009785 25.372704 7.4482236
41.687271 20 5.9597812
45.07 44.589027 0.9629916
23.719999 3.4504299 1.3835617
63.435177 7.3699999 1.1696299
43.467186 3.6799998 3.0560541
20 40.590778 0.63380527
40 21.834431 1.254935
21.417259 9.8299999 3.3617933
64.62648 2.4648876 17.049999
25.169998 21.574337 3.1552117
3.0520895 28.610001 0.21723709
24.529776 24.23 11.189396
62.373257 6.6961503 -0
67.938622 7.1987062 -0
42.582016 25.61414 6.98
0 40.225262 5.0367527
23.625309 20 12.632662
2.0392361 20 4.4636073
0.92681408 4.0992708 7.2812958
9.2700005 24.180153 5.1530533
23.432575 20.15523 -0
20.792128 9.8299999 4.6123862
22.966282 2.7482774 7.5053535
5.4958677 6.1100001 6.3689108
1.5049 24.225525 9.0668097
7.0686259 0.83504015 -0
0 43.261646 0.88662702
65.377304 0 7.5066409
45.07 47.05209 3.7148042
46.357857 20 4.0082884
48.209999 26.142061 1.1099455
20.397182 44.869225 6.9657183
45.79805 0 9.3412313
68.669998 2.4457433 9.93013
23.719999 5.2747331 0.66436118
20.482811 2.3586428 9.8953571
60 5.4255924 10.064035
20 4.5615683 4.2351823
46.585854 29.244835 -0
67.3284 0 5.1919894
44.440178 1.5087652 -0
44.570972 0 12.005107
40 43.103394 5.6170464
46.110001 1.6276178 0.45998931
25.17 23.88883 11.522245
65.149017 7.3699999 7.8730488
6.6694384 6.1100001 3.1876292
60 6.8218684 1.5988209
45.07 41.930153 14.423429
20 6.0255404 1.9967488
44.184319 48.57 4.7253284
44.023823 0 16.123188
5.8400002 45.345127 1.6458911
0 26.112362 0.84183127
43.53569 45.62495 16.1
4.211709 45.05098 -0
25.169998 24.067226 0.60949862
40 20.145084 1.8441193
45.07 43.229031 11.244286
48.209999 27.69825 2.8133919
40.680519 0 8.5828724
66.141792 7.3699999 14.976256
48.209999 24.128223 4.8958926
2.5316312 43.10334 -0
4.7749896 6.1100001 6.0237675
2.2902904 20 5.2403717
40.857803 48.57 11.862299
5.1495504 4.4750371 7.9401221
0.50469577 0 3.9447224
21.521477 40.238708 7.279088
48.209999 28.251339 5.8406973
45.452061 21.883692 -0
60 2.7087839 9.2174253
0 46.506573 4.2611971
63.620987 7.3699999 8.6848049
42.023903 47.329247 16.1
1.0786107 45.036987 7.3689575
40.02879 48.57 10.847306
23.719999 5.7196274 4.7029209
46.257347 20 3.6123264
62.890038 7.3699999 14.257742
23.504002 5.2077055 6.9878693
6.9906163 6.1100001 4.8867874
0 21.099073 0.11302812
60 5.5982685 9.7472687
61.088535 0 12.57559
61.974072 0 1.1837559
20.911762 0 8.6043987
9.2700005 22.425852 1.3469634
20 4.9125504 4.8725057
21.325939 41.970211 8.6627054
20 23.859438 9.8773928
44.021679 40 5.137928
48.209999 26.92523 3.3526669
4.4450698 21.713324 8.2009344
0 46.343449 4.3157721
45.07 40.89077 11.331506
0 27.739225 6.5248132
23.719999 0.34963685 6.6007361
20 21.026138 13.016399
48.209999 28.046003 1.3306763
23.719999 8.8054438 0.059174813
40 42.542679 4.2755661
2.109832 46.479771 8.142374
4.5424976 20 5.5020189
42.298065 48.453491 -0
5.6045113 20.684845 7.8594809
21.428549 20.648552 13.200001
60 2.8528435 14.929278
43.671246 3.6799998 8.1226606
45.758911 20 4.6811795
40 46.755188 2.3538551
41.407623 26.815659 -0
41.159828 46.09005 -0
5.1532793 25.232262 7.9923677
0 26.248304 7.2827396
3.8424904 3.3247154 8.7563581
40 25.351875 0.51433527
43.258224 48.57 13.651852
45.07 42.288609 7.4570842
40.701511 48.57 10.390856
5.1919646 0 5.3598223
40 22.08926 3.5054598
2.3262794 25.692524 8.8249149
7.0639577 25.436157 -0
0 40.213997 1.7085767
68.515083 0 3.4723458
40.850388 25.088518 -0
9.2700005 20.339052 1.3831544
24.049999 43.24736 1.3473885
20 6.6677928 3.4162922
5.1336784 20.989235 -0
48.209999 22.854464 1.6333792
46.110001 1.852177 2.0813701
40 42.119743 0.03513122
43.500553 40 15.095055
5.5442991 6.1100001 5.475668
21.925747 4.445436 8.5067282
41.171162 27.13559 6.9799995
4.2409086 2.5646944 8.5998335
20.009922 42.552433 6.2581286
60 0.18567222 13.813518
41.115623 3.6800001 10.246035
7.6195035 6.1100001 2.5564392
64.933746 7.3699999 11.211898
60 0.70468712 9.738389
44.515388 0 2.7925527
41.770874 44.87886 16.1
40 43.815323 15.214184
2.0758326 24.005646 8.8986702
40 40.651966 1.0676875
22.105061 22.024117 -0
0 5.4802155 1.7713856
44.159893 40 9.5036974
0.85143018 3.6334043 7.2405224
23.719999 7.2978096 4.8584647
45.07 48.338905 9.5560846
43.804794 3.6799998 13.169819
8.7020864 27.650009 6.9472499
61.752914 0 5.2726574
25.133171 20 4.1296649
43.18306 45.036346 -0
3.0404027 28.610001 3.2203851
1.4756682 6.1100001 3.7978146
5.8400002 44.12241 0.62680525
6.4572678 0 0.41706505
7.8928771 0.36790249 6.8108969
40.938313 29.57 5.1119547
22.436237 1.6804607 8.0154476
45.058502 26.204552 6.98
60 4.2881751 5.7569475
0 20.446424 2.8340445
20 43.765236 5.4039135
40 2.4657259 4.9439435
2.410439 0 5.4150152
0 27.106323 8.2180529
25.169998 21.734425 10.576802
65.131638 1.6565361 17.049999
5.6374812 0.15634646 -0
20 48.663666 5.0891118
40 1.6398153 14.99305
5.6723876 42.505363 6.6857095
45.430229 3.6800003 12.288703
20 47.513939 4.7593584
6.6088414 25.983395 -0
40.264828 48.57 0.80616879
62.971413 7.3699999 16.21172
0 4.7253909 3.0363121
43.601967 0 1.8483012
24.049999 44.801216 5.5934491
41.665035 40.028263 16.1
68.462585 4.1482568 -0
9.2700005 20.867699 3.4880505
22.265491 46.927948 9.5005827
8.1561975 20 5.9665403
20.689896 40.609657 7.5005484
40 42.663357 14.820898
43.422577 3.6799998 10.238819
40.232712 26.257124 6.98
3.4436758 28.610001 1.5174456
3.1480465 28.610001 3.0282075
0 22.892414 3.5002825
21.374023 46.047798 8.7505617
23.707031 20 1.1699281
7.9499998 3.9962289 1.8246784
20 2.1645384 1.6851023
40 24.088268 1.7834574
0 2.7194366 5.5782814
0 1.619761 6.4878197
3.8422875 20 0.45113999
68.669998 0.12367509 2.3672183
40.719757 0 6.2654119
6.6663628 28.610001 1.083976
20.908932 40.314316 7.6082077
42.019138 29.57 6.0050387
40.986839 0 0.80566305
4.7683291 5.0805149 -0
21.44857 24.23 1.9058799
20.686718 4.4148045 -0
6.8735032 28.610001 3.4188874
60 3.7717335 2.3761315
22.009472 49.525726 6.6938944
45.07 46.039234 1.814135
61.995186 3.6100473 -0
24.12323 24.23 2.6377287
40 27.960735 2.267318
20 46.883682 1.615611
44.672096 41.693634 16.1
43.369511 0 14.771048
45.07 48.255768 3.1690814
45.07 40.211613 4.9568844
43.136154 22.941275 6.9799995
63.511047 0 9.8778887
4.7921782 47.130001 7.3250923
41.136242 0 13.035684
20.652304 0 1.6277543
20 40.185196 4.8151302
41.864506 0 1.8846452
42.425709 26.637653 6.98
5.8400002 41.097347 3.7790813
66.663971 1.2938962 -0
45.069996 47.466942 11.768558
20.943138 43.748009 7.9632649
46.110001 1.1912004 13.647364
67.741508 1.1527365 -0
42.162647 40 4.9835024
0 2.7913415 4.3283658
66.592171 4.68186 -0
20 23.077972 4.0529013
40.390816 40 5.6054487
46.110001 1.8397814 14.144544
43.29142 3.1995945 -0
61.658176 7.3699999 12.91141
3.5308938 40.918121 8.2918301
66.613777 0 6.173779
6.5028858 28.610001 1.3613592
22.827896 9.8299999 2.5237243
20 3.590019 7.7277017
68.669998 0.34491286 10.609567
21.238419 0 0.42940822
40 21.374155 5.3801222
44.084682 40 4.8012109
5.0802741 5.1057215 -0
60 2.5396314 7.1994972
0 22.100611 3.4696217
40.150719 20 6.335712
41.406628 27.949839 6.98
40 47.462624 13.762073
45.07 42.807617 6.5048547
68.669998 6.6319342 10.431452
7.9499998 0.53251755 3.7488866
42.541512 1.0246546 16.6
45.07 40.843151 5.450789
68.669998 1.7312075 7.9778204
44.549469 29.57 3.4787614
61.028645 3.101311 -0
23.76399 49.629997 6.1199756
65.682953 7.0768924 -0
45.07 42.32476 7.7779698
23.154575 9.8299999 6.2005839
61.850845 0 12.402463
48.209999 21.965614 3.7520547
40 0.41239402 2.3730476
62.284828 0 4.0163884
3.4509783 23.424751 -0
68.669998 0.10359524 0.11092976
41.973198 48.57 11.409166
6.0734868 6.1099997 0.63220799
45.3428 0 1.8698115
2.756398 42.909492 -0
63.586548 0 15.427611
40 26.03665 5.1424637
20 6.5745149 9.3676977
62.954865 7.3699999 0.7143079
0 22.32584 1.3900356
40 46.520622 5.5549426
68.273056 0 7.9587388
22.786135 43.106758 8.5492802
4.0325933 20 0.44310838
20 21.576534 4.8102126
46.110001 1.4913764 12.616689
44.132004 0 14.061301
23.342909 0.29453236 7.1429005
40 42.962788 9.0853615
45.07 40.768791 6.3607936
20 21.728037 7.1439342
20.851532 49.630005 2.371737
40 45.035049 11.943119
60 7.0739732 1.3129097
60 2.2869201 9.7202711
41.678123 20 6.9397659
0 21.545448 7.5261641
43.531067 46.10894 -0
60 4.8267326 8.3545437
60 0.72620034 0.5867033
41.806194 3.6800001 11.483253
45.07 45.622646 11.468765
23.719997 9.5245781 1.0396676
21.945305 47.184059 -0
21.780993 40 5.5460453
21.988775 0 3.5715425
43.140755 1.926675 16.6
24.881353 22.240479 13.2
47.5741 27.14674 -0
4.5921855 23.189991 -0
68.647408 7.3699999 7.9063368
66.951332 0 16.044012
40 1.652531 5.1194358
6.8475628 1.3927345 -0
7.9499998 1.3548442 0.0039902758
1.5193361 4.475276 7.6017799
22.540039 40 2.6088996
24.049999 46.104519 4.5967269
42.085751 0 13.01082
20 5.8454714 8.9700365
60 6.6159911 2.6449614
7.9499993 0.23024996 2.7738059
62.02203 0 16.247337
68.669998 0.84508926 8.7485905
3.8389318 44.857891 -0
43.247398 29.57 3.2187898
7.7106547 28.609999 4.4092412
24.049999 45.846699 4.6213655
43.940849 3.6799998 8.2064095
68.669998 5.4398656 9.1576157
3.808351 6.1100001 4.100337
46.509983 25.378836 6.98
68.669998 0.89129734 12.375266
20 6.5675883 0.79446644
20.809534 49.630005 5.6098566
7.140727 20 2.4571567
68.669998 2.8046324 3.8024006
44.651829 20 1.1600572
9.268815 22.554958 -0
9.2700005 24.814196 6.5906725
25.17 23.540071 3.32848
23.719999 7.6138611 3.7815442
43.116394 0 0.25103208
0.61827964 1.3946874 7.1144161
1.2095221 4.9627495 -0
40 45.764755 6.9895096
44.970387 23.457584 -0
40 22.467094 2.3388038
45.611832 25.677687 -0
41.87167 3.6800003 15.967581
0 42.651379 1.3356688
68.669998 0.81823599 5.6321764
20.430153 24.23 7.3573174
68.669998 2.4970732 8.4062042
21.962667 46.139519 9.8261089
22.902395 47.379761 8.3368549
40.094227 3.6800001 9.87432
7.9499998 4.5660524 4.3744321
20 43.805092 0.62755656
23.147753 44.53952 7.8885479
22.523815 44.360435 9.0285816
68.669998 3.7494233 8.189497
23.719997 6.7782173 2.2807679
64.505928 7.3699999 11.419282
66.868103 1.4621772 -0
2.7653565 2.837132 8.2757273
40 26.468794 2.1022298
40.153713 3.6800001 16.005823
43.997032 26.903816 6.98
5.8400002 45.497414 5.4169679
20 23.440226 3.6109805
0 26.809467 4.9804506
43.871399 40 14.113429
47.401192 24.212345 6.98
41.914436 29.57 3.4285254
68.669998 3.8413143 1.7157636
4.1985369 20 2.3357949
43.392895 48.57 0.30146608
22.455887 20 11.98595
64.529465 7.3699999 1.9650326
60 3.0652053 15.657807
40 27.942209 2.6524851
44.35424 48.57 9.1408253
60 0.43630436 15.288256
47.451595 29.57 5.0449824
42.313889 3.0939684 -0
22.470057 44.734009 9.1268091
21.454353 9.8299999 4.6634436
23.230516 20 0.14625163
48.209999 25.856152 2.2173395
67.449158 0 5.92904
48.209999 22.835522 0.7969138
43.436947 23.753433 6.9800005
0 25.747303 3.0167346
5.476635 43.116917 -0
25.170002 22.797834 0.74861377
66.016403 7.3699999 13.311955
60 3.5647871 3.1878369
0 45.822823 4.9896307
45.62833 3.6800001 8.2011929
21.978424 5.4961629 -0
43.909542 21.014492 6.98
20.71537 24.23 7.2653308
2.396364 44.517097 -0
5.3454304 20 7.7778802
46.064545 24.929405 -0
6.6209407 21.244686 -0
23.181658 0.60716182 7.2980833
2.0606747 21.974529 -0
7.9500003 4.7597885 2.1021645
40 46.090996 5.3134065
9.2700005 27.357151 3.0117111
40 1.105599 2.4257572
45.07 45.487278 8.6135807
4.1940556 40.085457 -0
45.069996 40.395046 14.311451
4.7908807 3.8694968 -0
66.650597 7.3699999 10.813842
63.245605 5.2204795 17.049999
60 4.9692011 9.975215
20 1.4487717 8.4292746
47.485748 25.221741 -0
20 3.3715394 0.43021047
22.358467 3.1510308 8.090292
42.007957 46.135632 16.1
60 6.2160153 5.2510667
60 4.0200796 11.214378
67.73587 7.3699999 10.239713
60.786835 0 9.2580681
46.094315 23.07509 -0
23.719999 2.1522443 5.3248949
21.247833 20 1.1925802
22.406342 43.447556 9.2432232
40.152622 2.9917321 -0
48.209999 21.348949 3.1048739
2.7799737 46.155579 8.6449795
43.521828 3.6800001 5.2303181
25.170002 24.171673 6.1049213
1.2039695 25.880791 -0
60 4.2771449 6.3076034
3.2352498 47.130005 6.7175732
68.669998 3.4853659 0.069899321
68.222649 7.3699999 11.667114
63.009472 4.5949082 17.049999
40 0.1257569 14.984045
46.162674 29.57 2.6527267
0.38152492 20.161896 -0
40 1.9982077 13.297623
40.620083 29.57 0.66224635
62.835209 0 12.230964
24.694223 24.23 1.761897
43.188969 40 13.915428
42.832703 0 0.3445873
1.2081199 43.022003 -0
46.110001 2.7754483 8.5861626
4.1338434 2.1734107 8.3221893
61.84597 7.3699999 13.326549
2.3635173 47.088558 8.3326387
45.07 41.371391 10.211276
0 27.096497 5.4298897
48.209999 20.494301 2.8164477
19.999998 4.9807677 0.27826115
7.9752021 22.534897 -0
6.0867419 24.946198 7.7174644
20 41.010597 3.0949538
20 22.465382 11.411623
66.756493 0 13.357983
42.411362 27.124445 -0
60 4.4228096 9.5135956
21.122234 24.23 4.455349
40 0.18614854 10.698633
1.9442626 28.610003 3.1707392
45.07 45.954189 0.095261991
45.087425 0 12.512584
40 27.994358 5.457972
0 24.205938 6.7123446
20 48.042885 0.5305813
8.5195818 27.036129 7.0009975
66.206787 0 14.792111
65.349388 0 5.1088781
43.955399 3.6799998 11.356986
3.1248839 4.4011517 -0
45.07 42.068405 0.46545935
5.185142 46.601242 -0
40 48.262875 1.1905413
40 21.156965 5.3722491
48.209999 27.856455 2.7265167
1.6675493 21.075567 -0
7.6749425 6.1100001 5.9472623
0 44.171936 5.7231503
0 46.026047 4.3966484
60 2.3699107 12.237707
1.0962589 26.820457 -0
20.23819 24.23 0.38229954
22.436157 2.2181139 8.0155249
68.669998 5.2501583 10.763824
23.165878 47.453014 7.8554292
48.209999 21.927319 4.2128272
68.669998 1.0946462 11.454062
66.731903 4.1270919 17.049999
0 23.72514 9.2114525
42.040775 3.5516078 16.6
2.6339757 0.0092728985 6.7865801
44.945667 0 11.049252
44.61034 40 8.93221
43.927486 0 14.132269
40 42.243286 13.606228
23.521915 1.0410397 6.9706306
41.585873 3.6800003 7.589397
43.757645 3.6799998 8.3481236
3.4557085 4.4062085 7.9889607
40.60239 20 6.8783283
5.8639889 6.0570679 6.8175592
45.40744 23.280537 -0
22.232105 24.23 8.4081173
64.445511 0.92661345 -0
45.07 44.948433 12.185373
7.710423 23.668659 7.2392931
2.4520037 20.793381 8.7878885
64.562088 5.4670005 -0
21.190434 24.23 12.933659
42.112671 48.57 13.759142
23.719999 0.89087152 0.77641016
1.1731471 28.610001 0.7074495
41.291172 3.6800001 2.6078982
68.669998 1.8950454 9.5632896
40 42.428192 14.934899
48.209999 22.040195 4.1226277
45.624542 20 1.0592884
0 40.580391 0.86272722
4.172493 45.608883 7.8106308
40 45.596436 2.2848938
25.170002 22.840824 11.99364
40.5406 48.57 13.136096
41.445061 20 2.7514377
0.052814201 28.18935 9.4944468
65.181999 7.3699999 1.5760474
40 29.125076 3.2263248
8.5868444 27.950254 -0
23.719999 5.7636127 4.6193051
48.209999 27.961807 2.1214535
41.82885 20 1.7068324
45.07 40.899448 0.9968859
25.17 20.282593 3.8060765
45.07 47.165924 5.5794606
44.686771 40 13.287623
21.081169 0 0.61941177
24.790615 24.23 2.7725272
22.390518 0 0.5227387
40.931595 21.646984 -0
40 22.793026 1.2917556
23.378399 0 4.9959989
23.614119 20 10.458838
41.023518 20.468372 6.98
7.4540305 20.272011 7.3148003
21.768032 45.043007 9.47048
4.302783 23.062016 -0
44.202812 48.57 1.9304773
0.0067099701 20 2.2593386
64.849617 7.3699999 2.8032856
3.0845113 26.050198 8.6016169
21.355278 40 0.53463656
0 43.696003 5.7876949
8.1404247 24.144367 -0
48.209999 22.741333 2.0765359
0 25.738396 5.6808486
44.396126 45.657387 16.1
63.032204 7.3699999 12.638183
67.486572 7.3699999 3.2670071
5.5504966 40 2.3345041
60.820881 7.3699999 15.978
60.787231 7.3699999 6.6020155
62.891171 7.2890177 17.049999
61.538498 0 8.8395863
25.170002 22.627726 10.891521
48.209999 25.281433 1.662101
20 6.4875636 6.2921619
1.15616 40 2.2371557
22.727377 3.5932479 7.7352667
40 21.288147 6.5032868
40 45.588924 16.083084
1.7862045 20.327364 -0
46.110001 2.6189885 13.344585
64.944595 0 8.9795971
21.485632 23.313492 13.2
20 2.5412033 9.7905703
22.716217 42.682823 -0
40.71994 25.282537 -0
5.4732947 5.0783362 -0
60 0.00063960074 1.4079999
3.812475 6.1100001 1.2924341
64.256165 7.3699999 14.375396
42.316269 20 1.0709221
1.4192715 23.943581 -0
48.209999 28.344196 3.60461
48.209999 27.834093 4.2470336
23.742645 40.581974 -0
60.090771 7.3699999 15.297812
20 7.1127844 5.9358387
4.9547324 28.610001 2.0475442
41.734577 40 9.1767979
62.904491 7.3699999 15.799312
1.9802071 20 1.3351763
1.406523 6.1100006 0.28116718
40 43.318855 1.0010145
21.560642 44.284389 -0
5.8400002 40.525158 5.2295094
46.110001 2.8717339 1.7352531
41.804298 23.712044 6.9799995
2.0808201 40 5.6284962
40.182545 0 6.1857147
25.17 20.416164 1.4448161
45.07 42.739197 14.071024
68.669998 7.1210814 11.86058
2.9660163 3.4696887 8.3842611
41.821976 40 6.6620035
7.7068005 28.610001 7.1201386
7.9499998 0.56640786 1.6043209
60 6.5773869 11.791606
2.0797243 24.305872 -0
20 6.7364964 1.6361339
24.568993 20 0.054347705
45.246552 25.929132 -0
40 40.686081 10.455378
21.916082 9.8299999 0.17066818
43.333618 27.722353 6.98
1.4998327 6.1099997 6.5326242
22.943935 46.076218 8.2609587
20.123545 42.390697 -0
40.589775 47.331863 16.1
47.559219 28.308914 -0
20 20.742298 9.113924
9.1522512 28.610001 1.7432078
7.4204583 28.609999 5.5237427
40.658913 28.596855 6.9800005
6.7307596 0 5.096086
23.719999 1.1503959 0.055265766
0 6.0690212 4.699872
21.78969 2.1091473 -0
40.434341 26.633947 -0
23.582752 40.085899 6.6139159
0 43.377274 3.7986114
4.8665123 23.522999 8.0768204
45.07 44.194599 15.659811
60 1.3429731 12.197505
64.299484 6.6556854 -0
64.288719 5.4974508 -0
41.390598 47.334057 16.1
42.034698 29.57 3.6021373
20 6.7363963 3.7350206
22.465199 41.992744 -0
66.253937 5.2404094 17.049999
68.669998 3.1934066 11.215072
65.101952 7.3699999 16.775955
5.4736662 6.1100001 5.2591619
47.758472 28.173641 -0
3.4289007 0 1.3055437
42.037937 40 12.6768
24.049999 45.063801 4.0376158
5.2366171 47.130001 6.737565
4.1937265 40 6.2427454
3.6354265 28.610001 0.30345088
61.10355 0 15.154058
61.221436 6.7736721 -0
60.910229 0 2.7666335
21.652779 2.2424252 8.7694244
6.5631213 20 2.8862834
5.5214152 0.85349786 7.3856182
23.719999 8.2113829 6.024756
25.170002 21.45075 0.41599488
40 46.529221 9.5950193
2.2088199 20 3.0963736
20 1.1531941 8.4428463
0 25.004395 4.5960197
40.838493 0 10.660882
48.006248 29.57 5.9949393
23.307714 9.6301289 -0
20 0.41947317 2.0113142
20.090334 24.23 10.377501
3.5500579 41.948734 8.2774563
24.049999 45.578533 4.1785731
4.0044532 47.129997 2.1893661
68.669998 3.1469295 16.363913
20 1.6996676 3.4582405
9.2700005 21.116308 1.3960639
1.0160328 25.051273 9.2107801
61.430931 0.13132814 -0
40 21.033278 6.2794151
60.210899 7.3699999 4.7276368
23.780439 41.84182 6.7325296
48.209999 27.56851 6.2386041
43.858215 48.57 15.945366
3.2304068 20 3.2861626
40 41.906761 1.6192991
9.2700005 23.207302 3.394038
23.41433 43.558346 7.4014683
5.8251028 47.130001 4.043962
23.091595 49.321606 7.5824189
48.209999 25.14592 0.7167328
46.110001 1.4204489 9.9380093
60.088783 0 15.632774
43.565063 24.159622 -0
4.9074159 6.1099997 6.1400228
6.2787113 0 2.9674096
62.070625 1.9441789 17.049999
5.8400002 47.097343 3.0360615
20 5.3058028 7.5888653
66.158218 7.3699999 12.704931
0.97250682 20 3.9885468
20 2.6258235 1.3276645
68.669998 3.2393222 13.857146
23.719999 2.8108716 1.2747
40.810799 47.427406 -0
63.987183 0 15.665666
68.669998 6.419806 5.6710601
42.615582 46.611061 16.1
22.42075 4.461904 8.0303555
1.2446537 47.130001 6.0323772
21.971676 1.4622729 8.4625244
45.07 47.289406 5.7535772
48.209999 29.32198 6.6582031
45.215649 25.692482 6.9800005
20.850517 0 1.596401
63.601601 0 14.937177
60 0.58648008 8.4581232
20 22.473297 5.851923
0 41.830837 3.8890147
22.065966 3.4784486 8.3717842
67.467545 0 13.757859
45.07 48.379574 15.767529
21.348776 9.8299999 1.3473201
20.381187 40.999588 -0
40 44.948708 14.470205
24.601406 20 12.560156
40 3.1506011 14.184429
48.209999 23.171001 3.5192277
1.1399727 2.9940133 -0
25.170002 20.223282 4.3915796
24.049999 46.074856 2.3128693
64.524681 7.3699999 12.635455
22.520807 24.23 8.9535007
9.2700005 24.028015 4.1029325
0.78635418 6.1100001 3.5981336
45.205555 0 7.4885354
60 2.3884063 8.9038801
0 3.1955159 6.2088614
6.2992492 23.747604 -0
40 46.658485 8.2391443
62.605877 3.4377279 17.049999
40 40.954674 0.95818454
48.209999 29.358486 6.7713099
68.669998 0.71551579 10.750575
22.930172 20 8.6603994
9.2700005 24.52346 5.765017
20 42.182606 5.7424831
20 20.593361 5.9277892
0.090670452 27.060028 -0
46.110001 2.1936681 4.6150703
40 26.76222 4.0108442
68.669998 3.9630358 3.1486311
46.110001 1.7741556 4.8472447
48.209999 26.855604 0.4502219
1.9875681 23.401466 -0
61.194859 7.3699999 10.208343
20 6.0176344 7.4063263
23.835985 40 5.3805423
60 5.3971891 11.573347
68.669998 6.0326519 10.519072
21.50248 1.548216 -0
44.587257 25.062824 6.9800005
42.885406 3.6800001 15.058169
41.961121 23.785511 6.98
60 4.242775 17.046532
60.130672 7.3699999 3.1271906
40 43.473389 1.6557729
24.049999 40.682869 5.1654325
41.235367 40 6.0711555
21.084976 23.233589 -0
25.17 23.777163 12.620675
65.572395 2.2539346 17.049999
0 44.264427 2.0477319
40 46.702713 5.0942087
40 42.436298 4.8058281
40.191349 3.6800001 12.688354
68.669998 1.4654394 11.679319
23.256224 1.0252422 7.2263203
44.084869 42.904549 16.1
40 1.9099395 3.1868484
0.096258797 28.610001 7.304203
21.186903 43.248493 -0
40 43.697449 12.800451
40 0.19250318 9.7589979
7.7229962 25.224968 -0
22.533096 0 7.2914844
46.926155 24.980434 -0
20 7.3505445 4.8359976
21.251923 40 5.3787637
68.669998 0.72846216 7.6715198
3.3535545 21.549358 8.5223837
25.17 23.735531 0.86562699
67.085854 7.3699999 13.022296
68.669998 5.4195676 16.960627
20 0.66656113 9.1990547
8.3874712 28.610001 4.9767718
61.096024 7.3699999 3.9567332
45.07 45.258682 12.79109
61.798103 0 16.197241
40 24.574596 1.4122754
40.475842 40 5.3815036
24.795238 24.23 4.4297943
22.079967 43.006096 9.8395672
1.0246996 25.321835 -0
20.650181 45.911865 7.4279833
40 40.969391 11.742577
48.209999 27.269939 3.8677056
64.839897 0 6.8687983
7.9499998 0.026892655 1.782055
21.129374 20.140085 13.199999
0.32380101 44.813988 6.8028502
48.209999 25.649101 4.6339316
5.3079624 28.610001 2.1703534
2.66891 2.3101466 -0
6.8889861 0 4.0880208
2.5380638 28.610001 6.0866199
68.515465 0 0.24523553
20 7.3313532 4.9175272
20 40.031574 6.02457
9.0123692 20 6.4979458
46.586269 20 6.8943796
20.146929 0 6.637682
40 1.5465308 14.319637
60.060989 2.7669256 -0
45.411251 3.6800003 6.8735437
25.17 20.557543 8.2459526
41.696014 3.6800001 12.022911
66.889565 0 3.466217
40 0.90553576 3.5896361
43.575016 26.074949 -0
7.0438595 0 3.6523335
1.440375 20 0.63642031
